# .PCD v0.7 - Point Cloud Data file format
VERSION 0.7
FIELDS x y z intensity timestamp
SIZE 4 4 4 4 8
TYPE F F F U F
COUNT 1 1 1 1 1
WIDTH 1123
HEIGHT 1
VIEWPOINT 0 0 0 1 0 0 0
POINTS 1123
DATA ascii
8.40427 -3.63798 -0.850744 100 1.571255e+09
8.41948 -3.71171 -0.85484 100 1.571255e+09
8.4428 -3.78972 -0.859826 100 1.571255e+09
8.4664 -3.86864 -0.86491 100 1.571255e+09
8.4903 -3.94851 -0.870097 100 1.571255e+09
8.57907 -4.0599 -0.882025 100 1.571255e+09
8.73835 -4.20713 -0.901345 100 1.571255e+09
11.1047 -5.4383 -1.14924 100 1.571255e+09
11.04 -5.49862 -1.14643 100 1.571255e+09
10.9954 -5.56863 -1.14573 100 1.571255e+09
10.969 -5.64788 -1.14698 100 1.571255e+09
10.9631 -5.73805 -1.15045 100 1.571255e+09
10.9884 -5.84534 -1.15728 100 1.571255e+09
16.9893 -9.1841 -1.79587 100 1.571255e+09
16.9361 -9.30244 -1.79694 100 1.571255e+09
16.882 -9.42045 -1.79801 100 1.571255e+09
16.8271 -9.53813 -1.79907 100 1.571255e+09
16.7712 -9.65545 -1.80013 100 1.571255e+09
16.7146 -9.77245 -1.80118 100 1.571255e+09
16.657 -9.88908 -1.80224 100 1.571255e+09
16.5986 -10.0053 -1.80328 100 1.571255e+09
16.5393 -10.1212 -1.80433 100 1.571255e+09
16.4792 -10.2368 -1.80537 100 1.571255e+09
16.4182 -10.3519 -1.80641 100 1.571255e+09
16.3564 -10.4667 -1.80745 100 1.571255e+09
16.2936 -10.581 -1.80848 100 1.571255e+09
16.2301 -10.695 -1.8095 100 1.571255e+09
16.1657 -10.8085 -1.81053 100 1.571255e+09
16.1005 -10.9216 -1.81155 100 1.571255e+09
16.0344 -11.0343 -1.81256 100 1.571255e+09
15.9675 -11.1466 -1.81358 100 1.571255e+09
4.44453 -3.14711 -0.507239 100 1.571255e+09
4.34779 -3.12254 -0.498624 100 1.571255e+09
4.24214 -3.08994 -0.488919 100 1.571255e+09
4.15423 -3.06869 -0.481194 100 1.571255e+09
4.10545 -3.07537 -0.477968 100 1.571255e+09
4.05732 -3.08195 -0.474806 100 1.571255e+09
4.00981 -3.08843 -0.471706 100 1.571255e+09
3.96291 -3.09481 -0.468665 100 1.571255e+09
3.91562 -3.10032 -0.465568 100 1.571255e+09
3.86735 -3.10446 -0.462339 100 1.571255e+09
3.9107 -3.18256 -0.47011 100 1.571255e+09
3.88086 -3.20172 -0.469142 100 1.571255e+09
3.84871 -3.21877 -0.467903 100 1.571255e+09
3.81357 -3.23302 -0.466304 100 1.571255e+09
3.77866 -3.24718 -0.464735 100 1.571255e+09
3.74398 -3.26122 -0.4632 100 1.571255e+09
3.70954 -3.27517 -0.461694 100 1.571255e+09
3.6876 -3.30001 -0.461757 100 1.571255e+09
3.66735 -3.32639 -0.462053 100 1.571255e+09
3.64706 -3.35278 -0.46237 100 1.571255e+09
3.62675 -3.37921 -0.462708 100 1.571255e+09
3.55957 -3.36142 -0.457051 100 1.571255e+09
3.55187 -3.39945 -0.459032 100 1.571255e+09
3.54411 -3.43779 -0.461048 100 1.571255e+09
3.53487 -3.47508 -0.462919 100 1.571255e+09
3.51607 -3.50321 -0.463576 100 1.571255e+09
3.5157 -3.55008 -0.466708 100 1.571255e+09
3.50598 -3.58802 -0.468655 100 1.571255e+09
3.49618 -3.62625 -0.470638 100 1.571255e+09
3.48628 -3.66479 -0.472658 100 1.571255e+09
3.49163 -3.71998 -0.476809 100 1.571255e+09
3.50301 -3.78256 -0.481871 100 1.571255e+09
3.5146 -3.84644 -0.487061 100 1.571255e+09
8.16128 -9.30039 -1.15712 100 1.571255e+09
11.0202 12.7293 -1.57472 100 1.571255e+09
11.1067 12.6569 -1.57472 100 1.571255e+09
11.1926 12.5838 -1.57472 100 1.571255e+09
11.2781 12.5102 -1.57472 100 1.571255e+09
11.3631 12.4359 -1.57472 100 1.571255e+09
11.4476 12.3611 -1.57472 100 1.571255e+09
11.5315 12.2857 -1.57472 100 1.571255e+09
11.615 12.2097 -1.57472 100 1.571255e+09
11.698 12.1332 -1.57472 100 1.571255e+09
11.7804 12.056 -1.57472 100 1.571255e+09
11.8623 11.9783 -1.57472 100 1.571255e+09
11.9438 11.9001 -1.57472 100 1.571255e+09
12.0247 11.8212 -1.57472 100 1.571255e+09
12.105 11.7418 -1.57472 100 1.571255e+09
12.1848 11.6619 -1.57472 100 1.571255e+09
12.2641 11.5814 -1.57472 100 1.571255e+09
12.3428 11.5003 -1.57472 100 1.571255e+09
12.421 11.4188 -1.57472 100 1.571255e+09
12.4987 11.3366 -1.57472 100 1.571255e+09
12.5758 11.254 -1.57472 100 1.571255e+09
12.6523 11.1708 -1.57472 100 1.571255e+09
12.7283 11.0871 -1.57472 100 1.571255e+09
12.8037 11.0028 -1.57472 100 1.571255e+09
12.8785 10.918 -1.57472 100 1.571255e+09
12.9528 10.8327 -1.57472 100 1.571255e+09
13.0265 10.7469 -1.57472 100 1.571255e+09
13.0996 10.6606 -1.57472 100 1.571255e+09
14.4469 11.5971 -1.72712 100 1.571255e+09
14.5258 11.5013 -1.72712 100 1.571255e+09
14.6041 11.405 -1.72712 100 1.571255e+09
14.6817 11.3081 -1.72712 100 1.571255e+09
14.7586 11.2107 -1.72712 100 1.571255e+09
14.8349 11.1127 -1.72712 100 1.571255e+09
14.9105 11.0143 -1.72712 100 1.571255e+09
14.9855 10.9153 -1.72712 100 1.571255e+09
15.0598 10.8158 -1.72712 100 1.571255e+09
15.1334 10.7157 -1.72712 100 1.571255e+09
15.2063 10.6152 -1.72712 100 1.571255e+09
15.2786 10.5141 -1.72712 100 1.571255e+09
15.3501 10.4126 -1.72712 100 1.571255e+09
15.421 10.3106 -1.72712 100 1.571255e+09
15.4912 10.208 -1.72712 100 1.571255e+09
15.5607 10.105 -1.72712 100 1.571255e+09
15.6295 10.0015 -1.72712 100 1.571255e+09
15.6976 9.89751 -1.72712 100 1.571255e+09
15.7649 9.79306 -1.72712 100 1.571255e+09
15.8316 9.68812 -1.72712 100 1.571255e+09
15.8975 9.58273 -1.72712 100 1.571255e+09
15.9628 9.47689 -1.72712 100 1.571255e+09
16.0273 9.3706 -1.72712 100 1.571255e+09
16.0911 9.26385 -1.72712 100 1.571255e+09
16.1541 9.15667 -1.72712 100 1.571255e+09
16.2165 9.04903 -1.72712 100 1.571255e+09
16.2781 8.94098 -1.72712 100 1.571255e+09
16.3389 8.83249 -1.72712 100 1.571255e+09
16.399 8.72358 -1.72712 100 1.571255e+09
16.4584 8.61424 -1.72712 100 1.571255e+09
16.5173 8.50462 -1.72714 100 1.571255e+09
16.5777 8.39574 -1.7274 100 1.571255e+09
16.6373 8.28639 -1.72766 100 1.571255e+09
16.6962 8.17666 -1.72792 100 1.571255e+09
16.7544 8.06646 -1.72818 100 1.571255e+09
16.8118 7.95588 -1.72844 100 1.571255e+09
16.8685 7.84487 -1.7287 100 1.571255e+09
16.9244 7.73346 -1.72897 100 1.571255e+09
16.9797 7.62166 -1.72923 100 1.571255e+09
17.0342 7.50945 -1.7295 100 1.571255e+09
17.0879 7.39686 -1.72976 100 1.571255e+09
17.1409 7.28387 -1.73003 100 1.571255e+09
17.1931 7.17051 -1.7303 100 1.571255e+09
17.2445 7.05678 -1.73057 100 1.571255e+09
17.2952 6.94265 -1.73084 100 1.571255e+09
17.3452 6.82818 -1.73111 100 1.571255e+09
17.3943 6.71335 -1.73138 100 1.571255e+09
17.4427 6.59816 -1.73166 100 1.571255e+09
17.4903 6.48262 -1.73193 100 1.571255e+09
17.5372 6.36673 -1.73221 100 1.571255e+09
16.9136 6.01244 -1.6665 100 1.571255e+09
16.8415 5.86008 -1.6554 100 1.571255e+09
16.856 5.73885 -1.65291 100 1.571255e+09
16.9247 5.63604 -1.65582 100 1.571255e+09
17.0973 5.5666 -1.66893 100 1.571255e+09
17.8035 5.66496 -1.73403 100 1.571255e+09
17.8483 5.54786 -1.73465 100 1.571255e+09
17.8923 5.43039 -1.73526 100 1.571255e+09
17.9356 5.31261 -1.73588 100 1.571255e+09
17.9781 5.19449 -1.7365 100 1.571255e+09
18.0198 5.07605 -1.73713 100 1.571255e+09
18.0608 4.95727 -1.73776 100 1.571255e+09
18.101 4.83821 -1.73839 100 1.571255e+09
18.1404 4.71878 -1.73903 100 1.571255e+09
18.179 4.5991 -1.73967 100 1.571255e+09
18.2169 4.47909 -1.74031 100 1.571255e+09
18.2521 4.35833 -1.74078 100 1.571255e+09
18.2859 4.23716 -1.74118 100 1.571255e+09
18.3188 4.11571 -1.74159 100 1.571255e+09
18.351 3.99403 -1.74199 100 1.571255e+09
18.3823 3.87208 -1.7424 100 1.571255e+09
18.4127 3.74991 -1.74281 100 1.571255e+09
18.4424 3.62748 -1.74322 100 1.571255e+09
18.4712 3.50487 -1.74363 100 1.571255e+09
18.4991 3.38193 -1.74403 100 1.571255e+09
18.5253 3.25868 -1.74435 100 1.571255e+09
18.5508 3.13521 -1.74468 100 1.571255e+09
18.5752 3.01154 -1.745 100 1.571255e+09
18.5989 2.88768 -1.74532 100 1.571255e+09
18.6217 2.76364 -1.74564 100 1.571255e+09
18.6437 2.63942 -1.74596 100 1.571255e+09
18.6648 2.51503 -1.74628 100 1.571255e+09
18.685 2.39047 -1.74659 100 1.571255e+09
18.7045 2.26573 -1.74691 100 1.571255e+09
18.723 2.14085 -1.74723 100 1.571255e+09
18.7407 2.01582 -1.74755 100 1.571255e+09
18.7575 1.89064 -1.74787 100 1.571255e+09
18.7735 1.76535 -1.74818 100 1.571255e+09
18.7886 1.63989 -1.7485 100 1.571255e+09
18.8028 1.51433 -1.74882 100 1.571255e+09
18.8162 1.38864 -1.74913 100 1.571255e+09
18.8287 1.26285 -1.74945 100 1.571255e+09
18.8403 1.13693 -1.74976 100 1.571255e+09
6.32221 0.339043 -0.586935 100 1.571255e+09
6.3222 0.296595 -0.586732 100 1.571255e+09
6.3222 0.254176 -0.586556 100 1.571255e+09
6.32219 0.211779 -0.586407 100 1.571255e+09
6.32219 0.169397 -0.586286 100 1.571255e+09
6.32218 0.127034 -0.58619 100 1.571255e+09
6.32218 0.0846822 -0.586123 100 1.571255e+09
6.32217 0.0423416 -0.586082 100 1.571255e+09
6.32186 -2.80619e-06 -0.689591 100 1.571255e+09
6.32185 -0.0423404 -0.689606 100 1.571255e+09
6.32185 -0.084679 -0.689654 100 1.571255e+09
6.32184 -0.127028 -0.689731 100 1.571255e+09
6.32184 -0.169387 -0.689842 100 1.571255e+09
6.32183 -0.211759 -0.689983 100 1.571255e+09
6.32183 -0.254155 -0.690156 100 1.571255e+09
6.32182 -0.296571 -0.690362 100 1.571255e+09
6.32181 -0.339011 -0.690599 100 1.571255e+09
16.0359 -0.967675 -1.75245 100 1.571255e+09
16.0312 -1.07519 -1.75271 100 1.571255e+09
16.0258 -1.18267 -1.75296 100 1.571255e+09
16.0197 -1.29015 -1.75322 100 1.571255e+09
16.0128 -1.39758 -1.75347 100 1.571255e+09
16.0052 -1.50498 -1.75372 100 1.571255e+09
15.9968 -1.61234 -1.75398 100 1.571255e+09
15.9877 -1.71965 -1.75423 100 1.571255e+09
15.9779 -1.8269 -1.75448 100 1.571255e+09
15.9673 -1.93411 -1.75473 100 1.571255e+09
15.956 -2.04124 -1.75498 100 1.571255e+09
15.9439 -2.14832 -1.75523 100 1.571255e+09
15.9311 -2.25531 -1.75548 100 1.571255e+09
15.9175 -2.36223 -1.75572 100 1.571255e+09
15.9032 -2.46907 -1.75597 100 1.571255e+09
15.8882 -2.57581 -1.75622 100 1.571255e+09
15.8724 -2.68246 -1.75646 100 1.571255e+09
15.8559 -2.78901 -1.75671 100 1.571255e+09
15.8387 -2.89546 -1.75695 100 1.571255e+09
15.8207 -3.00179 -1.75719 100 1.571255e+09
15.8019 -3.10801 -1.75743 100 1.571255e+09
15.7825 -3.21411 -1.75767 100 1.571255e+09
15.7622 -3.32007 -1.75791 100 1.571255e+09
15.7413 -3.42591 -1.75815 100 1.571255e+09
15.7196 -3.53162 -1.75839 100 1.571255e+09
15.6972 -3.63718 -1.75862 100 1.571255e+09
15.6741 -3.74259 -1.75886 100 1.571255e+09
15.6502 -3.84785 -1.75909 100 1.571255e+09
15.6256 -3.95296 -1.75933 100 1.571255e+09
15.6003 -4.05789 -1.75956 100 1.571255e+09
15.5742 -4.16266 -1.75979 100 1.571255e+09
15.5474 -4.26726 -1.76002 100 1.571255e+09
15.5199 -4.37168 -1.76025 100 1.571255e+09
15.4917 -4.47591 -1.76048 100 1.571255e+09
15.4627 -4.57995 -1.7607 100 1.571255e+09
15.433 -4.68381 -1.76093 100 1.571255e+09
15.4026 -4.78745 -1.76115 100 1.571255e+09
15.3715 -4.8909 -1.76138 100 1.571255e+09
15.3396 -4.99413 -1.7616 100 1.571255e+09
15.3074 -5.09727 -1.76186 100 1.571255e+09
9.01397 -3.06881 -1.03989 100 1.571255e+09
8.89288 -3.09419 -1.02834 100 1.571255e+09
8.77733 -3.12004 -1.01742 100 1.571255e+09
8.72676 -3.16805 -1.01404 100 1.571255e+09
8.67655 -3.21574 -1.01074 100 1.571255e+09
8.6267 -3.26314 -1.00751 100 1.571255e+09
8.5772 -3.31025 -1.00435 100 1.571255e+09
8.54168 -3.36243 -1.00286 100 1.571255e+09
8.52652 -3.42258 -1.0038 100 1.571255e+09
8.51136 -3.48286 -1.00479 100 1.571255e+09
8.49621 -3.54327 -1.00584 100 1.571255e+09
8.48105 -3.60381 -1.00694 100 1.571255e+09
8.47565 -3.66872 -1.00925 100 1.571255e+09
8.50129 -3.74761 -1.01533 100 1.571255e+09
8.52728 -3.82748 -1.02153 100 1.571255e+09
8.55362 -3.90833 -1.02786 100 1.571255e+09
8.65104 -4.02309 -1.04285 100 1.571255e+09
14.6898 -6.9514 -1.77648 100 1.571255e+09
11.2252 -5.40421 -1.36193 100 1.571255e+09
11.1225 -5.44679 -1.35395 100 1.571255e+09
11.0548 -5.50575 -1.35025 100 1.571255e+09
11.0095 -5.5755 -1.34934 100 1.571255e+09
10.984 -5.65534 -1.35092 100 1.571255e+09
10.9816 -5.74746 -1.35542 100 1.571255e+09
11.0189 -5.8613 -1.36492 100 1.571255e+09
13.0683 -7.06416 -1.62473 100 1.571255e+09
13.0267 -7.15479 -1.62559 100 1.571255e+09
12.9812 -7.24341 -1.62605 100 1.571255e+09
12.9365 -7.33252 -1.62668 100 1.571255e+09
12.8912 -7.42133 -1.62731 100 1.571255e+09
12.8458 -7.51017 -1.62801 100 1.571255e+09
12.8005 -7.59919 -1.62882 100 1.571255e+09
12.7547 -7.68795 -1.62962 100 1.571255e+09
12.7081 -7.7764 -1.63042 100 1.571255e+09
12.661 -7.86457 -1.63121 100 1.571255e+09
12.6132 -7.95243 -1.632 100 1.571255e+09
12.5647 -8.03996 -1.63279 100 1.571255e+09
12.5156 -8.1272 -1.63358 100 1.571255e+09
12.4659 -8.2141 -1.63436 100 1.571255e+09
12.4155 -8.3007 -1.63514 100 1.571255e+09
12.3645 -8.38695 -1.63592 100 1.571255e+09
12.3129 -8.47289 -1.6367 100 1.571255e+09
4.40938 -3.07795 -0.588894 100 1.571255e+09
4.31617 -3.05607 -0.579216 100 1.571255e+09
4.21428 -3.02651 -0.5683 100 1.571255e+09
4.14475 -3.01885 -0.561686 100 1.571255e+09
4.09641 -3.02583 -0.557916 100 1.571255e+09
4.04869 -3.03271 -0.55422 100 1.571255e+09
4.00086 -3.03892 -0.550495 100 1.571255e+09
3.95175 -3.04356 -0.546578 100 1.571255e+09
3.90332 -3.04812 -0.542739 100 1.571255e+09
3.85555 -3.05261 -0.538977 100 1.571255e+09
3.9232 -3.14914 -0.551421 100 1.571255e+09
3.89341 -3.16834 -0.550254 100 1.571255e+09
3.86092 -3.18512 -0.548717 100 1.571255e+09
3.82583 -3.19947 -0.546812 100 1.571255e+09
3.79097 -3.2137 -0.544946 100 1.571255e+09
3.75635 -3.22784 -0.543116 100 1.571255e+09
3.72196 -3.24187 -0.541323 100 1.571255e+09
3.68778 -3.2558 -0.539565 100 1.571255e+09
3.66336 -3.27815 -0.539244 100 1.571255e+09
3.64323 -3.30434 -0.539578 100 1.571255e+09
3.62306 -3.33055 -0.539938 100 1.571255e+09
3.60287 -3.35678 -0.540321 100 1.571255e+09
3.58265 -3.38304 -0.540728 100 1.571255e+09
3.50784 -3.35712 -0.532872 100 1.571255e+09
3.49998 -3.3948 -0.535175 100 1.571255e+09
3.49205 -3.4328 -0.53752 100 1.571255e+09
3.48403 -3.4711 -0.539908 100 1.571255e+09
3.47593 -3.50973 -0.54234 100 1.571255e+09
3.46627 -3.54718 -0.544584 100 1.571255e+09
3.45642 -3.58481 -0.546852 100 1.571255e+09
3.44647 -3.62274 -0.549163 100 1.571255e+09
3.43642 -3.66097 -0.551516 100 1.571255e+09
3.43904 -3.71327 -0.555972 100 1.571255e+09
3.44975 -3.77525 -0.56184 100 1.571255e+09
9.40862 10.8671 -1.57987 100 1.571255e+09
9.48281 10.8057 -1.57997 100 1.571255e+09
9.55677 10.7437 -1.58005 100 1.571255e+09
9.62937 10.6806 -1.58005 100 1.571255e+09
9.70169 10.617 -1.58005 100 1.571255e+09
9.77361 10.553 -1.58005 100 1.571255e+09
9.84513 10.4884 -1.58005 100 1.571255e+09
9.91622 10.4234 -1.58005 100 1.571255e+09
9.98686 10.3578 -1.58005 100 1.571255e+09
10.057 10.2918 -1.58005 100 1.571255e+09
10.1268 10.2252 -1.58005 100 1.571255e+09
10.1961 10.1583 -1.58005 100 1.571255e+09
10.265 10.0908 -1.58005 100 1.571255e+09
10.3334 10.0228 -1.58005 100 1.571255e+09
10.4014 9.95442 -1.58005 100 1.571255e+09
10.4688 9.88554 -1.58005 100 1.571255e+09
10.5359 9.81619 -1.58005 100 1.571255e+09
10.6024 9.74638 -1.58005 100 1.571255e+09
10.6685 9.67612 -1.58005 100 1.571255e+09
10.7326 9.60402 -1.57983 100 1.571255e+09
10.7961 9.53141 -1.57959 100 1.571255e+09
10.859 9.45833 -1.57934 100 1.571255e+09
10.9215 9.38482 -1.57909 100 1.571255e+09
10.9834 9.31088 -1.57884 100 1.571255e+09
11.0448 9.23654 -1.57859 100 1.571255e+09
11.1057 9.16179 -1.57835 100 1.571255e+09
11.1661 9.08662 -1.5781 100 1.571255e+09
11.226 9.01106 -1.57785 100 1.571255e+09
11.2854 8.9351 -1.57761 100 1.571255e+09
11.3442 8.85874 -1.57736 100 1.571255e+09
11.4025 8.78198 -1.57711 100 1.571255e+09
11.4603 8.70483 -1.57686 100 1.571255e+09
11.5176 8.62729 -1.57662 100 1.571255e+09
11.5743 8.54936 -1.57637 100 1.571255e+09
11.6304 8.47106 -1.57612 100 1.571255e+09
11.6861 8.39237 -1.57587 100 1.571255e+09
11.7411 8.31334 -1.57562 100 1.571255e+09
11.7957 8.2339 -1.57537 100 1.571255e+09
11.8497 8.15413 -1.57513 100 1.571255e+09
11.9031 8.074 -1.57488 100 1.571255e+09
11.9567 7.99395 -1.57472 100 1.571255e+09
12.011 7.91433 -1.57472 100 1.571255e+09
13.233 8.59303 -1.72721 100 1.571255e+09
13.2924 8.50561 -1.72736 100 1.571255e+09
13.3509 8.41754 -1.72746 100 1.571255e+09
13.4088 8.3291 -1.72756 100 1.571255e+09
13.4661 8.2402 -1.72766 100 1.571255e+09
13.5228 8.15095 -1.72776 100 1.571255e+09
13.5805 8.06218 -1.72806 100 1.571255e+09
13.6385 7.97357 -1.72847 100 1.571255e+09
13.6959 7.88455 -1.72889 100 1.571255e+09
13.7518 7.79462 -1.7292 100 1.571255e+09
13.8071 7.70425 -1.7295 100 1.571255e+09
13.8618 7.61347 -1.7298 100 1.571255e+09
13.9156 7.52217 -1.73007 100 1.571255e+09
13.9688 7.43047 -1.73034 100 1.571255e+09
14.0214 7.33839 -1.73061 100 1.571255e+09
14.0734 7.24594 -1.73087 100 1.571255e+09
14.1247 7.15312 -1.73114 100 1.571255e+09
14.1754 7.05993 -1.73141 100 1.571255e+09
14.2255 6.96638 -1.73168 100 1.571255e+09
14.275 6.87247 -1.73195 100 1.571255e+09
14.3239 6.77822 -1.73222 100 1.571255e+09
14.3721 6.6836 -1.73249 100 1.571255e+09
14.4197 6.58863 -1.73276 100 1.571255e+09
14.4666 6.49334 -1.73303 100 1.571255e+09
14.5129 6.39768 -1.73331 100 1.571255e+09
14.5586 6.30171 -1.73358 100 1.571255e+09
14.6036 6.20541 -1.73385 100 1.571255e+09
14.6479 6.10878 -1.73412 100 1.571255e+09
14.6916 6.01183 -1.73439 100 1.571255e+09
14.7347 5.91457 -1.73467 100 1.571255e+09
14.7771 5.81699 -1.73494 100 1.571255e+09
14.8189 5.7191 -1.73521 100 1.571255e+09
14.86 5.62093 -1.73548 100 1.571255e+09
14.9004 5.52244 -1.73576 100 1.571255e+09
14.9401 5.42365 -1.73603 100 1.571255e+09
14.9792 5.32458 -1.7363 100 1.571255e+09
15.0176 5.22524 -1.73658 100 1.571255e+09
15.0554 5.1256 -1.73685 100 1.571255e+09
15.0925 5.0257 -1.73713 100 1.571255e+09
15.1289 4.92551 -1.7374 100 1.571255e+09
15.1646 4.82507 -1.73767 100 1.571255e+09
15.1996 4.72436 -1.73795 100 1.571255e+09
15.234 4.6234 -1.73822 100 1.571255e+09
15.2677 4.52218 -1.7385 100 1.571255e+09
15.3006 4.4207 -1.73877 100 1.571255e+09
15.3329 4.31901 -1.73904 100 1.571255e+09
15.3646 4.21706 -1.73932 100 1.571255e+09
15.3955 4.11488 -1.73959 100 1.571255e+09
15.4257 4.01246 -1.73987 100 1.571255e+09
15.4552 3.90984 -1.74014 100 1.571255e+09
15.484 3.80698 -1.74041 100 1.571255e+09
15.5121 3.70391 -1.74069 100 1.571255e+09
15.5396 3.60064 -1.74096 100 1.571255e+09
15.5663 3.49715 -1.74123 100 1.571255e+09
15.5923 3.39348 -1.74151 100 1.571255e+09
15.6176 3.2896 -1.74178 100 1.571255e+09
15.6422 3.18554 -1.74205 100 1.571255e+09
15.6661 3.08128 -1.74233 100 1.571255e+09
15.6893 2.97685 -1.7426 100 1.571255e+09
15.7118 2.87224 -1.74287 100 1.571255e+09
15.7335 2.76748 -1.74315 100 1.571255e+09
15.7545 2.66253 -1.74342 100 1.571255e+09
15.7749 2.55742 -1.74369 100 1.571255e+09
15.7945 2.45217 -1.74396 100 1.571255e+09
15.8133 2.34675 -1.74423 100 1.571255e+09
15.8315 2.2412 -1.7445 100 1.571255e+09
15.8489 2.13551 -1.74477 100 1.571255e+09
15.8656 2.02968 -1.74505 100 1.571255e+09
15.8816 1.92371 -1.74532 100 1.571255e+09
15.8969 1.81763 -1.74559 100 1.571255e+09
15.9114 1.71143 -1.74586 100 1.571255e+09
15.9252 1.60511 -1.74612 100 1.571255e+09
15.9383 1.49868 -1.74639 100 1.571255e+09
15.9506 1.39214 -1.74666 100 1.571255e+09
15.9623 1.28551 -1.74693 100 1.571255e+09
15.9731 1.17877 -1.7472 100 1.571255e+09
15.9833 1.07197 -1.74747 100 1.571255e+09
15.9927 0.965055 -1.74773 100 1.571255e+09
6.3219 0.339013 -0.690608 100 1.571255e+09
6.3219 0.29657 -0.690371 100 1.571255e+09
6.32189 0.254153 -0.690163 100 1.571255e+09
6.32189 0.21176 -0.689989 100 1.571255e+09
6.32188 0.169381 -0.689847 100 1.571255e+09
6.32188 0.127024 -0.689735 100 1.571255e+09
6.32187 0.0846752 -0.689656 100 1.571255e+09
6.32186 0.0423378 -0.689608 100 1.571255e+09
6.32155 -2.88248e-06 -0.793472 100 1.571255e+09
6.32154 -0.0423371 -0.793489 100 1.571255e+09
6.32154 -0.0846732 -0.793543 100 1.571255e+09
6.32153 -0.127016 -0.793633 100 1.571255e+09
6.32153 -0.169372 -0.793759 100 1.571255e+09
6.32152 -0.211743 -0.793921 100 1.571255e+09
6.32151 -0.254132 -0.794121 100 1.571255e+09
6.32151 -0.296542 -0.794356 100 1.571255e+09
6.3215 -0.338981 -0.794628 100 1.571255e+09
13.9189 -0.839895 -1.75032 100 1.571255e+09
13.9146 -0.933196 -1.75054 100 1.571255e+09
13.9097 -1.02647 -1.75076 100 1.571255e+09
13.9042 -1.11973 -1.75099 100 1.571255e+09
13.8979 -1.21295 -1.75121 100 1.571255e+09
13.8911 -1.30614 -1.75143 100 1.571255e+09
13.8836 -1.39929 -1.75165 100 1.571255e+09
13.8755 -1.49239 -1.75186 100 1.571255e+09
13.8667 -1.58544 -1.75208 100 1.571255e+09
13.8572 -1.67845 -1.7523 100 1.571255e+09
13.8472 -1.7714 -1.75251 100 1.571255e+09
13.8365 -1.86428 -1.75273 100 1.571255e+09
13.8251 -1.95711 -1.75295 100 1.571255e+09
13.8131 -2.04985 -1.75316 100 1.571255e+09
13.8005 -2.14253 -1.75337 100 1.571255e+09
13.7873 -2.23512 -1.75359 100 1.571255e+09
13.7734 -2.32762 -1.7538 100 1.571255e+09
13.7588 -2.42005 -1.75401 100 1.571255e+09
13.7437 -2.51237 -1.75422 100 1.571255e+09
13.7278 -2.6046 -1.75443 100 1.571255e+09
13.7114 -2.69672 -1.75464 100 1.571255e+09
13.6943 -2.78875 -1.75485 100 1.571255e+09
13.6766 -2.88065 -1.75505 100 1.571255e+09
13.6582 -2.97244 -1.75526 100 1.571255e+09
13.6392 -3.06411 -1.75547 100 1.571255e+09
13.6196 -3.15565 -1.75567 100 1.571255e+09
13.5994 -3.24707 -1.75588 100 1.571255e+09
13.5785 -3.33835 -1.75608 100 1.571255e+09
13.5569 -3.42949 -1.75628 100 1.571255e+09
13.5348 -3.52048 -1.75648 100 1.571255e+09
13.512 -3.61134 -1.75668 100 1.571255e+09
13.4886 -3.70203 -1.75688 100 1.571255e+09
13.4646 -3.79257 -1.75708 100 1.571255e+09
13.4399 -3.88295 -1.75728 100 1.571255e+09
13.4146 -3.97317 -1.75747 100 1.571255e+09
13.3887 -4.06321 -1.75767 100 1.571255e+09
13.3622 -4.15308 -1.75787 100 1.571255e+09
13.335 -4.24277 -1.75806 100 1.571255e+09
13.3073 -4.33228 -1.75825 100 1.571255e+09
13.2789 -4.4216 -1.75844 100 1.571255e+09
13.2498 -4.51073 -1.75863 100 1.571255e+09
13.2202 -4.59965 -1.75882 100 1.571255e+09
8.96454 -3.18646 -1.19551 100 1.571255e+09
8.84422 -3.21056 -1.18236 100 1.571255e+09
8.78759 -3.25676 -1.17773 100 1.571255e+09
8.73674 -3.30463 -1.17391 100 1.571255e+09
8.68626 -3.35219 -1.17017 100 1.571255e+09
8.64109 -3.40142 -1.16718 100 1.571255e+09
8.62585 -3.46231 -1.16828 100 1.571255e+09
8.61061 -3.52332 -1.16944 100 1.571255e+09
8.59538 -3.58448 -1.17066 100 1.571255e+09
8.58014 -3.64576 -1.17195 100 1.571255e+09
8.60418 -3.72419 -1.17867 100 1.571255e+09
8.63099 -3.80463 -1.18587 100 1.571255e+09
8.65817 -3.88606 -1.19321 100 1.571255e+09
11.6013 -5.30067 -1.60376 100 1.571255e+09
11.5751 -5.38266 -1.60517 100 1.571255e+09
11.5488 -5.46478 -1.60665 100 1.571255e+09
11.521 -5.54635 -1.608 100 1.571255e+09
11.4887 -5.62589 -1.6088 100 1.571255e+09
11.2952 -5.62525 -1.58705 100 1.571255e+09
11.3021 -5.72343 -1.59345 100 1.571255e+09
11.3873 -5.8627 -1.61105 100 1.571255e+09
10.9933 -5.75333 -1.56082 100 1.571255e+09
10.9512 -5.82504 -1.56044 100 1.571255e+09
11.29 -6.10262 -1.61461 100 1.571255e+09
11.2567 -6.18237 -1.61582 100 1.571255e+09
11.2196 -6.26015 -1.61658 100 1.571255e+09
11.1824 -6.33798 -1.6174 100 1.571255e+09
11.1468 -6.41679 -1.61853 100 1.571255e+09
11.1106 -6.49539 -1.61966 100 1.571255e+09
11.0733 -6.57352 -1.62072 100 1.571255e+09
11.036 -6.65169 -1.62184 100 1.571255e+09
10.9989 -6.73017 -1.62309 100 1.571255e+09
10.9612 -6.80844 -1.62433 100 1.571255e+09
10.923 -6.88647 -1.62557 100 1.571255e+09
10.8842 -6.96428 -1.62681 100 1.571255e+09
10.8395 -7.03848 -1.62726 100 1.571255e+09
10.7907 -7.10992 -1.62715 100 1.571255e+09
10.7413 -7.18103 -1.62704 100 1.571255e+09
4.4691 -3.03129 -0.680064 100 1.571255e+09
4.3746 -3.01016 -0.668784 100 1.571255e+09
4.28315 -2.98969 -0.657899 100 1.571255e+09
4.18655 -2.96416 -0.646143 100 1.571255e+09
4.13518 -2.96956 -0.641319 100 1.571255e+09
4.08674 -2.97646 -0.63693 100 1.571255e+09
4.03676 -2.98163 -0.632286 100 1.571255e+09
3.98748 -2.98671 -0.627735 100 1.571255e+09
3.9389 -2.99171 -0.623275 100 1.571255e+09
3.89098 -2.99661 -0.618903 100 1.571255e+09
4.04319 -3.1572 -0.646512 100 1.571255e+09
3.93558 -3.11582 -0.632679 100 1.571255e+09
3.90583 -3.13505 -0.631308 100 1.571255e+09
3.87299 -3.15156 -0.629446 100 1.571255e+09
3.83794 -3.166 -0.627233 100 1.571255e+09
3.80313 -3.18032 -0.625062 100 1.571255e+09
3.76856 -3.19454 -0.622934 100 1.571255e+09
3.73422 -3.20866 -0.620848 100 1.571255e+09
3.7001 -3.22267 -0.618802 100 1.571255e+09
3.66622 -3.23658 -0.616797 100 1.571255e+09
3.63935 -3.2565 -0.615986 100 1.571255e+09
3.61934 -3.2825 -0.616359 100 1.571255e+09
3.5993 -3.30852 -0.616758 100 1.571255e+09
3.57745 -3.33292 -0.61688 100 1.571255e+09
3.55385 -3.35566 -0.616724 100 1.571255e+09
3.53025 -3.37838 -0.616596 100 1.571255e+09
3.50665 -3.40109 -0.616495 100 1.571255e+09
3.44878 -3.39007 -0.610351 100 1.571255e+09
3.44068 -3.42771 -0.613022 100 1.571255e+09
3.43249 -3.46567 -0.61574 100 1.571255e+09
3.42422 -3.50394 -0.618509 100 1.571255e+09
3.41585 -3.54254 -0.621327 100 1.571255e+09
3.4074 -3.58147 -0.624196 100 1.571255e+09
3.39734 -3.61911 -0.626837 100 1.571255e+09
3.38714 -3.65704 -0.62952 100 1.571255e+09
3.38704 -3.7064 -0.634158 100 1.571255e+09
8.24948 9.39976 -1.58005 100 1.571255e+09
8.31305 9.34521 -1.58005 100 1.571255e+09
8.37625 9.29021 -1.58005 100 1.571255e+09
8.4391 9.23478 -1.58005 100 1.571255e+09
8.50152 9.17892 -1.58005 100 1.571255e+09
8.56358 9.12263 -1.58005 100 1.571255e+09
8.62533 9.06592 -1.58005 100 1.571255e+09
8.68663 9.00879 -1.58005 100 1.571255e+09
8.74756 8.95123 -1.58005 100 1.571255e+09
8.80814 8.89326 -1.58005 100 1.571255e+09
8.86829 8.83487 -1.58005 100 1.571255e+09
8.92807 8.77607 -1.58005 100 1.571255e+09
8.98745 8.71686 -1.58005 100 1.571255e+09
9.04642 8.65725 -1.58005 100 1.571255e+09
9.10501 8.59723 -1.58005 100 1.571255e+09
9.16316 8.53681 -1.58005 100 1.571255e+09
9.22094 8.47599 -1.58005 100 1.571255e+09
9.2771 8.41369 -1.57985 100 1.571255e+09
9.33282 8.35099 -1.57964 100 1.571255e+09
9.3881 8.28792 -1.57943 100 1.571255e+09
9.44294 8.22447 -1.57923 100 1.571255e+09
9.49735 8.16066 -1.57902 100 1.571255e+09
9.55131 8.09646 -1.57881 100 1.571255e+09
9.60483 8.03189 -1.5786 100 1.571255e+09
9.6579 7.96697 -1.57838 100 1.571255e+09
9.71049 7.90167 -1.57817 100 1.571255e+09
9.76264 7.83603 -1.57795 100 1.571255e+09
9.81434 7.77002 -1.57773 100 1.571255e+09
9.86556 7.70367 -1.57752 100 1.571255e+09
9.91635 7.63699 -1.5773 100 1.571255e+09
9.96666 7.56995 -1.57708 100 1.571255e+09
10.0165 7.50256 -1.57686 100 1.571255e+09
10.0659 7.43486 -1.57664 100 1.571255e+09
10.1148 7.36683 -1.57642 100 1.571255e+09
10.1633 7.29846 -1.5762 100 1.571255e+09
10.2112 7.22977 -1.57598 100 1.571255e+09
10.2587 7.16073 -1.57576 100 1.571255e+09
10.3058 7.09138 -1.57554 100 1.571255e+09
10.3523 7.02172 -1.57532 100 1.571255e+09
10.3984 6.95177 -1.57509 100 1.571255e+09
10.444 6.88149 -1.57487 100 1.571255e+09
10.4896 6.81121 -1.57472 100 1.571255e+09
10.5357 6.74128 -1.57472 100 1.571255e+09
11.6053 7.31665 -1.72712 100 1.571255e+09
11.6549 7.23927 -1.72712 100 1.571255e+09
11.7039 7.16152 -1.72712 100 1.571255e+09
11.7524 7.08347 -1.72712 100 1.571255e+09
11.8003 7.00507 -1.72712 100 1.571255e+09
11.8485 6.92677 -1.72723 100 1.571255e+09
11.8963 6.84823 -1.72736 100 1.571255e+09
11.9435 6.76936 -1.72749 100 1.571255e+09
11.9911 6.6906 -1.72774 100 1.571255e+09
12.0375 6.61118 -1.7279 100 1.571255e+09
12.0834 6.53144 -1.72806 100 1.571255e+09
12.1298 6.45193 -1.72837 100 1.571255e+09
12.1747 6.37163 -1.72856 100 1.571255e+09
12.2192 6.29092 -1.72874 100 1.571255e+09
12.2645 6.21078 -1.72913 100 1.571255e+09
12.308 6.1296 -1.72934 100 1.571255e+09
12.3509 6.04812 -1.72955 100 1.571255e+09
12.3934 5.96628 -1.72976 100 1.571255e+09
12.4378 5.88547 -1.73033 100 1.571255e+09
12.4794 5.80317 -1.73057 100 1.571255e+09
12.5204 5.72044 -1.73081 100 1.571255e+09
12.5612 5.63787 -1.73111 100 1.571255e+09
12.6039 5.55592 -1.73174 100 1.571255e+09
12.6435 5.47255 -1.73201 100 1.571255e+09
12.6825 5.38894 -1.73229 100 1.571255e+09
12.7225 5.30557 -1.73276 100 1.571255e+09
12.7636 5.22265 -1.73347 100 1.571255e+09
12.8012 5.13824 -1.73379 100 1.571255e+09
12.8383 5.05358 -1.7341 100 1.571255e+09
12.876 4.96909 -1.73459 100 1.571255e+09
12.915 4.88502 -1.73531 100 1.571255e+09
12.9506 4.7996 -1.73566 100 1.571255e+09
12.9856 4.71387 -1.73601 100 1.571255e+09
13.0197 4.62786 -1.73631 100 1.571255e+09
13.0528 4.54139 -1.73655 100 1.571255e+09
13.0852 4.45466 -1.73678 100 1.571255e+09
13.1171 4.36775 -1.73702 100 1.571255e+09
13.1484 4.28055 -1.73726 100 1.571255e+09
13.1791 4.19315 -1.7375 100 1.571255e+09
13.2092 4.10552 -1.73774 100 1.571255e+09
13.2387 4.01767 -1.73797 100 1.571255e+09
13.2676 3.92961 -1.73821 100 1.571255e+09
13.2959 3.84134 -1.73845 100 1.571255e+09
13.3236 3.75287 -1.73869 100 1.571255e+09
13.3508 3.6642 -1.73893 100 1.571255e+09
13.3773 3.57531 -1.73916 100 1.571255e+09
13.4032 3.48625 -1.7394 100 1.571255e+09
13.4285 3.39694 -1.73964 100 1.571255e+09
13.4532 3.30755 -1.73988 100 1.571255e+09
13.4773 3.21791 -1.74012 100 1.571255e+09
13.5008 3.12811 -1.74035 100 1.571255e+09
13.5237 3.03813 -1.74059 100 1.571255e+09
13.5459 2.94828 -1.74083 100 1.571255e+09
13.5676 2.85775 -1.74107 100 1.571255e+09
13.5886 2.76722 -1.7413 100 1.571255e+09
13.6091 2.67658 -1.74154 100 1.571255e+09
13.6289 2.58582 -1.74178 100 1.571255e+09
13.648 2.49487 -1.74201 100 1.571255e+09
13.6666 2.40382 -1.74225 100 1.571255e+09
13.6845 2.31257 -1.74249 100 1.571255e+09
13.7019 2.22126 -1.74272 100 1.571255e+09
13.7186 2.12977 -1.74296 100 1.571255e+09
13.7346 2.03818 -1.74319 100 1.571255e+09
13.7501 1.94645 -1.74343 100 1.571255e+09
13.7649 1.85463 -1.74366 100 1.571255e+09
13.7791 1.7627 -1.7439 100 1.571255e+09
13.7927 1.67063 -1.74413 100 1.571255e+09
13.8056 1.57847 -1.74437 100 1.571255e+09
13.8179 1.48618 -1.7446 100 1.571255e+09
13.8296 1.39383 -1.74484 100 1.571255e+09
13.8407 1.30139 -1.74507 100 1.571255e+09
13.8511 1.20884 -1.7453 100 1.571255e+09
13.8609 1.11625 -1.74553 100 1.571255e+09
13.87 1.02353 -1.74577 100 1.571255e+09
13.8785 0.93076 -1.746 100 1.571255e+09
13.8864 0.837918 -1.74623 100 1.571255e+09
6.32159 0.338983 -0.794639 100 1.571255e+09
6.32158 0.296543 -0.794366 100 1.571255e+09
6.32158 0.254132 -0.794129 100 1.571255e+09
6.32157 0.21174 -0.793928 100 1.571255e+09
6.32157 0.169366 -0.793765 100 1.571255e+09
6.32156 0.127014 -0.793637 100 1.571255e+09
6.32156 0.0846678 -0.793546 100 1.571255e+09
6.32155 0.0423344 -0.79349 100 1.571255e+09
6.32124 -2.93732e-06 -0.897765 100 1.571255e+09
6.32123 -0.042332 -0.897786 100 1.571255e+09
6.32122 -0.0846648 -0.897847 100 1.571255e+09
6.32122 -0.127005 -0.897948 100 1.571255e+09
6.32122 -0.169356 -0.89809 100 1.571255e+09
6.32121 -0.211723 -0.898273 100 1.571255e+09
6.3212 -0.254107 -0.898499 100 1.571255e+09
6.3212 -0.296515 -0.898764 100 1.571255e+09
6.32119 -0.338952 -0.899072 100 1.571255e+09
12.2225 -0.737529 -1.7391 100 1.571255e+09
12.218 -0.819236 -1.73921 100 1.571255e+09
12.2129 -0.901175 -1.73932 100 1.571255e+09
12.2073 -0.982912 -1.73943 100 1.571255e+09
12.2011 -1.06466 -1.73955 100 1.571255e+09
12.1944 -1.14643 -1.73966 100 1.571255e+09
12.1862 -1.22816 -1.73965 100 1.571255e+09
12.1773 -1.30969 -1.73961 100 1.571255e+09
12.1678 -1.39115 -1.73956 100 1.571255e+09
12.1576 -1.47252 -1.7395 100 1.571255e+09
12.1468 -1.55382 -1.73943 100 1.571255e+09
12.1353 -1.63502 -1.73934 100 1.571255e+09
12.1233 -1.71612 -1.73925 100 1.571255e+09
12.1106 -1.79712 -1.73915 100 1.571255e+09
12.0973 -1.87785 -1.73903 100 1.571255e+09
12.0848 -1.9589 -1.73912 100 1.571255e+09
12.071 -2.03986 -1.73909 100 1.571255e+09
12.0558 -2.12041 -1.73894 100 1.571255e+09
12.0399 -2.20084 -1.73877 100 1.571255e+09
12.0234 -2.28112 -1.73859 100 1.571255e+09
12.0063 -2.36128 -1.7384 100 1.571255e+09
11.9886 -2.44129 -1.73821 100 1.571255e+09
11.9703 -2.52115 -1.738 100 1.571255e+09
11.9513 -2.60086 -1.73778 100 1.571255e+09
11.9318 -2.68043 -1.73755 100 1.571255e+09
11.913 -2.76012 -1.73751 100 1.571255e+09
11.8921 -2.83933 -1.73725 100 1.571255e+09
11.8707 -2.91837 -1.73698 100 1.571255e+09
11.8487 -2.99723 -1.7367 100 1.571255e+09
11.826 -3.0759 -1.73641 100 1.571255e+09
11.8028 -3.15439 -1.73611 100 1.571255e+09
11.779 -3.23267 -1.7358 100 1.571255e+09
11.7545 -3.31077 -1.73549 100 1.571255e+09
11.7341 -3.38999 -1.73583 100 1.571255e+09
11.7137 -3.46924 -1.73627 100 1.571255e+09
10.6045 -3.21813 -1.57507 100 1.571255e+09
10.5825 -3.289 -1.57509 100 1.571255e+09
10.5608 -3.35996 -1.57523 100 1.571255e+09
10.5391 -3.43095 -1.57544 100 1.571255e+09
10.5169 -3.5018 -1.57565 100 1.571255e+09
10.4943 -3.57248 -1.57586 100 1.571255e+09
10.4715 -3.64315 -1.57613 100 1.571255e+09
9.06894 -3.22343 -1.36829 100 1.571255e+09
9.00779 -3.2698 -1.36239 100 1.571255e+09
8.99118 -3.33208 -1.36328 100 1.571255e+09
10.3763 -3.92461 -1.5773 100 1.571255e+09
10.3512 -3.99456 -1.57759 100 1.571255e+09
8.88249 -3.49629 -1.35734 100 1.571255e+09
8.85065 -3.55239 -1.35614 100 1.571255e+09
8.84472 -3.61893 -1.35897 100 1.571255e+09
9.25971 -3.86136 -1.42674 100 1.571255e+09
8.77654 -3.72905 -1.35616 100 1.571255e+09
8.72641 -3.77694 -1.35236 100 1.571255e+09
8.72223 -3.84468 -1.35573 100 1.571255e+09
10.1326 -4.54766 -1.57973 100 1.571255e+09
10.1031 -4.61593 -1.57998 100 1.571255e+09
10.0731 -4.684 -1.58023 100 1.571255e+09
10.0426 -4.75186 -1.58048 100 1.571255e+09
10.0116 -4.81951 -1.58073 100 1.571255e+09
9.98013 -4.88696 -1.58097 100 1.571255e+09
9.94818 -4.95418 -1.58121 100 1.571255e+09
9.91574 -5.02115 -1.58144 100 1.571255e+09
9.88279 -5.08791 -1.58166 100 1.571255e+09
9.84937 -5.15443 -1.58189 100 1.571255e+09
9.82345 -5.22497 -1.58339 100 1.571255e+09
9.80651 -5.3005 -1.58643 100 1.571255e+09
9.78897 -5.37603 -1.58947 100 1.571255e+09
9.77087 -5.45157 -1.59251 100 1.571255e+09
9.74888 -5.52523 -1.59501 100 1.571255e+09
9.72336 -5.59713 -1.59702 100 1.571255e+09
9.69728 -5.66891 -1.59903 100 1.571255e+09
9.67064 -5.74057 -1.60104 100 1.571255e+09
9.64347 -5.81212 -1.60304 100 1.571255e+09
9.61575 -5.88355 -1.60504 100 1.571255e+09
9.58746 -5.95485 -1.60703 100 1.571255e+09
9.55861 -6.026 -1.60902 100 1.571255e+09
9.52792 -6.0962 -1.61079 100 1.571255e+09
9.49403 -6.1645 -1.6121 100 1.571255e+09
9.45961 -6.23261 -1.61341 100 1.571255e+09
4.43281 -2.96338 -0.759465 100 1.571255e+09
4.33822 -2.94238 -0.746668 100 1.571255e+09
4.23811 -2.9161 -0.732828 100 1.571255e+09
4.16169 -2.90477 -0.723009 100 1.571255e+09
4.12237 -2.91858 -0.719604 100 1.571255e+09
4.07223 -2.92421 -0.714301 100 1.571255e+09
4.02279 -2.92974 -0.709102 100 1.571255e+09
3.97405 -2.93517 -0.704007 100 1.571255e+09
3.92599 -2.94051 -0.699012 100 1.571255e+09
3.87858 -2.94575 -0.694117 100 1.571255e+09
4.11662 -3.17023 -0.740552 100 1.571255e+09
4.71806 -3.68399 -0.853224 100 1.571255e+09
3.91813 -3.10184 -0.712353 100 1.571255e+09
3.88489 -3.11808 -0.71014 100 1.571255e+09
3.84989 -3.1326 -0.707613 100 1.571255e+09
3.81513 -3.14702 -0.705132 100 1.571255e+09
3.78062 -3.16133 -0.702701 100 1.571255e+09
3.74633 -3.17553 -0.700318 100 1.571255e+09
3.71226 -3.18963 -0.697978 100 1.571255e+09
3.67843 -3.20362 -0.695686 100 1.571255e+09
3.6448 -3.21752 -0.693439 100 1.571255e+09
3.61556 -3.23504 -0.692034 100 1.571255e+09
3.5955 -3.2607 -0.69241 100 1.571255e+09
3.57208 -3.28333 -0.692173 100 1.571255e+09
3.54867 -3.30593 -0.691966 100 1.571255e+09
3.52527 -3.3285 -0.691787 100 1.571255e+09
3.50187 -3.35104 -0.691637 100 1.571255e+09
3.47847 -3.37357 -0.691517 100 1.571255e+09
3.45508 -3.39607 -0.691427 100 1.571255e+09
3.39821 -3.38523 -0.684624 100 1.571255e+09
3.38995 -3.42253 -0.687616 100 1.571255e+09
3.38159 -3.46013 -0.690662 100 1.571255e+09
3.37314 -3.49805 -0.693763 100 1.571255e+09
3.36461 -3.53629 -0.696919 100 1.571255e+09
3.35598 -3.57485 -0.700132 100 1.571255e+09
3.34725 -3.61375 -0.703404 100 1.571255e+09
3.33841 -3.65297 -0.706729 100 1.571255e+09
7.29547 8.31224 -1.57986 100 1.571255e+09
7.35097 8.2632 -1.57973 100 1.571255e+09
7.40616 8.21379 -1.5796 100 1.571255e+09
7.46102 8.16402 -1.57947 100 1.571255e+09
7.5155 8.11387 -1.57933 100 1.571255e+09
7.56965 8.06333 -1.5792 100 1.571255e+09
7.62345 8.01243 -1.57906 100 1.571255e+09
7.67691 7.96116 -1.57893 100 1.571255e+09
7.73001 7.90953 -1.57879 100 1.571255e+09
7.78275 7.85753 -1.57865 100 1.571255e+09
7.83514 7.80518 -1.57851 100 1.571255e+09
7.88717 7.75245 -1.57837 100 1.571255e+09
7.93882 7.69938 -1.57823 100 1.571255e+09
7.99012 7.64597 -1.57808 100 1.571255e+09
8.04103 7.59219 -1.57794 100 1.571255e+09
8.09158 7.53807 -1.5778 100 1.571255e+09
8.14177 7.48361 -1.57765 100 1.571255e+09
8.19157 7.4288 -1.57751 100 1.571255e+09
8.241 7.37364 -1.57736 100 1.571255e+09
8.29003 7.31816 -1.57721 100 1.571255e+09
8.33871 7.26234 -1.57706 100 1.571255e+09
8.38698 7.20618 -1.57691 100 1.571255e+09
8.43487 7.14971 -1.57676 100 1.571255e+09
8.48236 7.09289 -1.57661 100 1.571255e+09
8.52946 7.03576 -1.57646 100 1.571255e+09
8.57617 6.97831 -1.5763 100 1.571255e+09
8.62249 6.92053 -1.57615 100 1.571255e+09
8.66838 6.86244 -1.57599 100 1.571255e+09
8.71387 6.80402 -1.57583 100 1.571255e+09
8.75896 6.7453 -1.57567 100 1.571255e+09
8.80364 6.68628 -1.57551 100 1.571255e+09
8.84789 6.62693 -1.57534 100 1.571255e+09
8.89173 6.56727 -1.57518 100 1.571255e+09
8.93516 6.50734 -1.57501 100 1.571255e+09
8.97817 6.4471 -1.57484 100 1.571255e+09
9.02105 6.38676 -1.57472 100 1.571255e+09
9.06421 6.32662 -1.57472 100 1.571255e+09
9.10697 6.26619 -1.57472 100 1.571255e+09
9.23447 6.26322 -1.58938 100 1.571255e+09
9.40642 6.28829 -1.61159 100 1.571255e+09
9.59966 6.32487 -1.6373 100 1.571255e+09
9.82312 6.37818 -1.66798 100 1.571255e+09
10.1003 6.46239 -1.70755 100 1.571255e+09
10.2602 6.46829 -1.72712 100 1.571255e+09
10.3039 6.39983 -1.72712 100 1.571255e+09
10.3471 6.33105 -1.72712 100 1.571255e+09
10.3899 6.26199 -1.72712 100 1.571255e+09
10.4322 6.19264 -1.72712 100 1.571255e+09
10.4741 6.12299 -1.72712 100 1.571255e+09
10.5154 6.05306 -1.72712 100 1.571255e+09
10.5563 5.98285 -1.72712 100 1.571255e+09
10.5967 5.91235 -1.72712 100 1.571255e+09
10.6367 5.84159 -1.72712 100 1.571255e+09
10.6763 5.77063 -1.72714 100 1.571255e+09
10.7153 5.69933 -1.72715 100 1.571255e+09
10.7539 5.62776 -1.72715 100 1.571255e+09
10.7919 5.55593 -1.72716 100 1.571255e+09
10.8295 5.48384 -1.72716 100 1.571255e+09
10.8665 5.41149 -1.72717 100 1.571255e+09
10.9031 5.33889 -1.72718 100 1.571255e+09
10.9392 5.26603 -1.72718 100 1.571255e+09
10.9748 5.19293 -1.72719 100 1.571255e+09
11.0099 5.1196 -1.72719 100 1.571255e+09
11.0446 5.04605 -1.72721 100 1.571255e+09
11.0799 4.9729 -1.72741 100 1.571255e+09
11.1138 4.89884 -1.72746 100 1.571255e+09
11.147 4.82459 -1.72748 100 1.571255e+09
11.1797 4.75011 -1.7275 100 1.571255e+09
11.2119 4.67541 -1.72752 100 1.571255e+09
11.2435 4.60049 -1.72754 100 1.571255e+09
11.2763 4.52597 -1.72781 100 1.571255e+09
11.3089 4.45137 -1.72812 100 1.571255e+09
11.3392 4.37583 -1.72817 100 1.571255e+09
11.3691 4.3001 -1.72821 100 1.571255e+09
11.3983 4.22417 -1.72826 100 1.571255e+09
11.4271 4.14801 -1.72831 100 1.571255e+09
11.4554 4.07166 -1.72835 100 1.571255e+09
11.4854 3.99589 -1.72874 100 1.571255e+09
11.5152 3.92003 -1.72917 100 1.571255e+09
11.5436 3.84362 -1.72946 100 1.571255e+09
11.57 3.76653 -1.72954 100 1.571255e+09
11.5959 3.68924 -1.72962 100 1.571255e+09
11.6212 3.61182 -1.7297 100 1.571255e+09
11.6461 3.53418 -1.72977 100 1.571255e+09
11.6704 3.4564 -1.72985 100 1.571255e+09
11.6942 3.37845 -1.72993 100 1.571255e+09
11.7175 3.30029 -1.73001 100 1.571255e+09
11.7402 3.22208 -1.73009 100 1.571255e+09
11.7624 3.14349 -1.73017 100 1.571255e+09
11.784 3.06498 -1.73024 100 1.571255e+09
11.8075 2.9868 -1.73066 100 1.571255e+09
11.8305 2.9087 -1.7311 100 1.571255e+09
11.853 2.82997 -1.73153 100 1.571255e+09
11.873 2.75084 -1.73167 100 1.571255e+09
11.8922 2.67146 -1.73178 100 1.571255e+09
11.9108 2.59196 -1.73188 100 1.571255e+09
11.9289 2.51227 -1.73198 100 1.571255e+09
11.9464 2.43271 -1.73209 100 1.571255e+09
11.9644 2.35308 -1.73234 100 1.571255e+09
11.9829 2.27357 -1.73273 100 1.571255e+09
12.0008 2.19369 -1.73312 100 1.571255e+09
12.018 2.11376 -1.73349 100 1.571255e+09
12.0347 2.03371 -1.73385 100 1.571255e+09
12.0491 1.95329 -1.73398 100 1.571255e+09
12.063 1.8728 -1.7341 100 1.571255e+09
12.0763 1.79222 -1.73422 100 1.571255e+09
12.0891 1.71132 -1.73434 100 1.571255e+09
12.1015 1.63072 -1.73449 100 1.571255e+09
12.1145 1.54982 -1.73481 100 1.571255e+09
12.127 1.46898 -1.73512 100 1.571255e+09
12.1389 1.38783 -1.73543 100 1.571255e+09
12.1501 1.30676 -1.73572 100 1.571255e+09
12.1607 1.22558 -1.736 100 1.571255e+09
12.1705 1.14444 -1.73625 100 1.571255e+09
12.1789 1.06296 -1.73638 100 1.571255e+09
12.1868 0.981394 -1.73651 100 1.571255e+09
12.1941 0.899875 -1.73664 100 1.571255e+09
12.2009 0.818257 -1.73677 100 1.571255e+09
12.2071 0.736621 -1.7369 100 1.571255e+09
6.32128 0.338954 -0.899084 100 1.571255e+09
6.32127 0.296517 -0.898775 100 1.571255e+09
6.32127 0.25411 -0.898508 100 1.571255e+09
6.32126 0.211722 -0.898281 100 1.571255e+09
6.32126 0.16935 -0.898097 100 1.571255e+09
6.32125 0.127 -0.897953 100 1.571255e+09
6.32125 0.0846592 -0.897851 100 1.571255e+09
6.32124 0.0423276 -0.897787 100 1.571255e+09
6.32093 -2.70843e-06 -1.00253 100 1.571255e+09
6.32092 -0.0423284 -1.00255 100 1.571255e+09
6.32091 -0.0846575 -1.00262 100 1.571255e+09
6.32091 -0.126994 -1.00273 100 1.571255e+09
6.3209 -0.169342 -1.00289 100 1.571255e+09
6.3209 -0.211705 -1.0031 100 1.571255e+09
6.32089 -0.254087 -1.00335 100 1.571255e+09
6.32088 -0.296492 -1.00364 100 1.571255e+09
6.32088 -0.338922 -1.00399 100 1.571255e+09
10.8718 -0.655991 -1.72751 100 1.571255e+09
10.8671 -0.728754 -1.72751 100 1.571255e+09
10.8619 -0.801493 -1.7275 100 1.571255e+09
10.8561 -0.874193 -1.72749 100 1.571255e+09
10.8499 -0.946852 -1.72748 100 1.571255e+09
10.8431 -1.01946 -1.72747 100 1.571255e+09
10.8359 -1.09203 -1.72746 100 1.571255e+09
10.8281 -1.16454 -1.72745 100 1.571255e+09
10.8198 -1.23699 -1.72743 100 1.571255e+09
10.8111 -1.30938 -1.72742 100 1.571255e+09
10.8018 -1.38172 -1.7274 100 1.571255e+09
10.7921 -1.45398 -1.72738 100 1.571255e+09
10.7819 -1.52617 -1.72737 100 1.571255e+09
10.7711 -1.59829 -1.72735 100 1.571255e+09
10.7599 -1.67033 -1.72733 100 1.571255e+09
10.7482 -1.7423 -1.72731 100 1.571255e+09
10.736 -1.81417 -1.72729 100 1.571255e+09
10.7232 -1.88597 -1.72726 100 1.571255e+09
10.71 -1.95766 -1.72724 100 1.571255e+09
10.6963 -2.02926 -1.72722 100 1.571255e+09
10.6821 -2.10076 -1.72719 100 1.571255e+09
10.6675 -2.17218 -1.72717 100 1.571255e+09
10.6523 -2.24348 -1.72714 100 1.571255e+09
10.6367 -2.31471 -1.72712 100 1.571255e+09
10.6207 -2.38579 -1.72712 100 1.571255e+09
10.6043 -2.4568 -1.72712 100 1.571255e+09
10.5873 -2.52769 -1.72712 100 1.571255e+09
10.5699 -2.59846 -1.72712 100 1.571255e+09
10.552 -2.66911 -1.72712 100 1.571255e+09
10.5336 -2.73964 -1.72712 100 1.571255e+09
10.5148 -2.81004 -1.72712 100 1.571255e+09
10.4954 -2.8803 -1.72712 100 1.571255e+09
10.4756 -2.95043 -1.72712 100 1.571255e+09
10.4553 -3.02042 -1.72712 100 1.571255e+09
9.51382 -2.81759 -1.57472 100 1.571255e+09
9.49446 -2.88115 -1.57472 100 1.571255e+09
9.49836 -2.95193 -1.57866 100 1.571255e+09
9.4554 -3.00816 -1.57488 100 1.571255e+09
9.43582 -3.07167 -1.57505 100 1.571255e+09
9.41577 -3.13501 -1.57523 100 1.571255e+09
9.39531 -3.19824 -1.5754 100 1.571255e+09
9.37442 -3.26134 -1.57558 100 1.571255e+09
9.04973 -3.21647 -1.52465 100 1.571255e+09
8.98671 -3.26201 -1.51773 100 1.571255e+09
8.96279 -3.32142 -1.51747 100 1.571255e+09
9.28652 -3.51228 -1.57628 100 1.571255e+09
9.26349 -3.57465 -1.57645 100 1.571255e+09
9.24001 -3.63686 -1.57662 100 1.571255e+09
9.21611 -3.69891 -1.5768 100 1.571255e+09
9.19179 -3.7608 -1.57697 100 1.571255e+09
9.16703 -3.82253 -1.57714 100 1.571255e+09
8.7331 -3.71044 -1.50679 100 1.571255e+09
8.69116 -3.76151 -1.50392 100 1.571255e+09
8.67552 -3.82393 -1.50568 100 1.571255e+09
9.06381 -4.06778 -1.57783 100 1.571255e+09
9.03695 -4.12866 -1.57799 100 1.571255e+09
9.00969 -4.18933 -1.57816 100 1.571255e+09
8.98198 -4.24984 -1.57833 100 1.571255e+09
8.95387 -4.31014 -1.57849 100 1.571255e+09
8.92533 -4.37025 -1.57866 100 1.571255e+09
8.89638 -4.43018 -1.57882 100 1.571255e+09
8.86703 -4.48991 -1.57898 100 1.571255e+09
8.83726 -4.54944 -1.57915 100 1.571255e+09
8.80707 -4.60877 -1.57931 100 1.571255e+09
8.7765 -4.6679 -1.57947 100 1.571255e+09
8.7455 -4.72682 -1.57963 100 1.571255e+09
8.7141 -4.78551 -1.57979 100 1.571255e+09
8.68228 -4.84399 -1.57994 100 1.571255e+09
8.64963 -4.90211 -1.58005 100 1.571255e+09
8.6162 -4.95967 -1.58005 100 1.571255e+09
8.58451 -5.01816 -1.58042 100 1.571255e+09
8.55345 -5.07716 -1.58101 100 1.571255e+09
8.52196 -5.13595 -1.58159 100 1.571255e+09
8.49358 -5.19669 -1.58283 100 1.571255e+09
8.47217 -5.26188 -1.58546 100 1.571255e+09
8.45023 -5.327 -1.58808 100 1.571255e+09
8.4278 -5.39206 -1.5907 100 1.571255e+09
8.40458 -5.45687 -1.59327 100 1.571255e+09
8.37647 -5.5187 -1.595 100 1.571255e+09
8.34788 -5.58039 -1.59672 100 1.571255e+09
8.3188 -5.64191 -1.59845 100 1.571255e+09
8.28926 -5.70328 -1.60016 100 1.571255e+09
4.39396 -3.06675 -0.852209 100 1.571255e+09
4.27897 -3.0293 -0.833872 100 1.571255e+09
4.16887 -2.99346 -0.816352 100 1.571255e+09
4.07581 -2.96821 -0.802052 100 1.571255e+09
4.03132 -2.97732 -0.79725 100 1.571255e+09
3.97931 -2.9803 -0.790943 100 1.571255e+09
3.92822 -2.9833 -0.784789 100 1.571255e+09
3.87801 -2.98633 -0.778784 100 1.571255e+09
3.82866 -2.98938 -0.772925 100 1.571255e+09
3.78014 -2.99245 -0.767206 100 1.571255e+09
3.73242 -2.99555 -0.761624 100 1.571255e+09
3.68998 -3.00234 -0.7571 100 1.571255e+09
3.66669 -3.02443 -0.756509 100 1.571255e+09
3.64351 -3.04653 -0.755967 100 1.571255e+09
3.62042 -3.06865 -0.755473 100 1.571255e+09
3.59742 -3.09079 -0.755026 100 1.571255e+09
3.57452 -3.11296 -0.754628 100 1.571255e+09
3.55169 -3.13516 -0.754277 100 1.571255e+09
3.52896 -3.15739 -0.753974 100 1.571255e+09
3.50631 -3.17965 -0.753718 100 1.571255e+09
3.48373 -3.20195 -0.753509 100 1.571255e+09
3.46123 -3.22429 -0.753347 100 1.571255e+09
3.43879 -3.24667 -0.753233 100 1.571255e+09
3.41643 -3.2691 -0.753165 100 1.571255e+09
3.40242 -3.29962 -0.754984 100 1.571255e+09
3.39918 -3.34095 -0.759269 100 1.571255e+09
3.39599 -3.38283 -0.763654 100 1.571255e+09
3.34826 -3.38025 -0.758048 100 1.571255e+09
3.33982 -3.4172 -0.761359 100 1.571255e+09
3.38662 -3.51183 -0.777428 100 1.571255e+09
3.38357 -3.55601 -0.782233 100 1.571255e+09
3.38055 -3.60082 -0.787151 100 1.571255e+09
3.37757 -3.64627 -0.792183 100 1.571255e+09
3.39077 -3.71005 -0.80115 100 1.571255e+09
6.52711 7.43633 -1.57753 100 1.571255e+09
6.57677 7.39247 -1.57741 100 1.571255e+09
6.62614 7.34828 -1.57729 100 1.571255e+09
6.6752 7.30374 -1.57717 100 1.571255e+09
6.72394 7.25888 -1.57705 100 1.571255e+09
6.7724 7.21367 -1.57693 100 1.571255e+09
6.82055 7.16814 -1.57681 100 1.571255e+09
6.86837 7.12227 -1.57669 100 1.571255e+09
6.91588 7.07609 -1.57656 100 1.571255e+09
6.96306 7.02958 -1.57644 100 1.571255e+09
7.00995 6.98274 -1.57632 100 1.571255e+09
7.05648 6.93558 -1.57619 100 1.571255e+09
7.10272 6.88811 -1.57606 100 1.571255e+09
7.14862 6.84033 -1.57594 100 1.571255e+09
7.19417 6.79223 -1.57581 100 1.571255e+09
7.23941 6.74383 -1.57568 100 1.571255e+09
7.28432 6.69511 -1.57555 100 1.571255e+09
7.32888 6.64609 -1.57542 100 1.571255e+09
7.37311 6.59675 -1.57529 100 1.571255e+09
7.41701 6.54714 -1.57515 100 1.571255e+09
7.46055 6.49721 -1.57502 100 1.571255e+09
7.50376 6.44699 -1.57489 100 1.571255e+09
7.54662 6.39647 -1.57475 100 1.571255e+09
7.58963 6.34607 -1.57472 100 1.571255e+09
7.63246 6.29552 -1.57472 100 1.571255e+09
7.67494 6.24468 -1.57472 100 1.571255e+09
7.75482 6.22397 -1.58246 100 1.571255e+09
7.85195 6.21579 -1.59361 100 1.571255e+09
7.95786 6.21339 -1.60652 100 1.571255e+09
8.06548 6.21095 -1.61971 100 1.571255e+09
8.1749 6.20845 -1.6332 100 1.571255e+09
8.28617 6.2059 -1.64699 100 1.571255e+09
8.39931 6.20329 -1.66108 100 1.571255e+09
8.51443 6.20061 -1.67549 100 1.571255e+09
8.63155 6.19788 -1.69023 100 1.571255e+09
8.75564 6.19855 -1.70627 100 1.571255e+09
8.88585 6.20182 -1.72341 100 1.571255e+09
8.94692 6.15577 -1.72712 100 1.571255e+09
8.98846 6.09608 -1.72712 100 1.571255e+09
9.02961 6.0361 -1.72712 100 1.571255e+09
9.07034 5.97583 -1.72712 100 1.571255e+09
9.11065 5.91529 -1.72712 100 1.571255e+09
9.15057 5.85448 -1.72712 100 1.571255e+09
9.19008 5.79339 -1.72712 100 1.571255e+09
9.22916 5.73204 -1.72712 100 1.571255e+09
9.26785 5.6704 -1.72712 100 1.571255e+09
9.30611 5.60852 -1.72712 100 1.571255e+09
9.34394 5.54637 -1.72712 100 1.571255e+09
